# 3D point list with one line of data per point:
#   POINT3D_ID, X, Y, Z, R, G, B, ERROR, TRACK[] as (IMAGE_ID, POINT2D_IDX)
# Number of points: 279, mean track length: 5.064584864070536
620 -0.4441612162394345 1.738976616760384 2.1765461930735017 93 146 70 0.28813340134989518 62 1704 26 1695 19 1684 17 1661 77 1617 82 1796 98 1552 21 1480 3 1409 15 1278 56 1268 65 1572 58 1648 99 1078 7 1185 47 1681 86 1256 46 923
621 -0.97014548895151886 1.5989930234356102 2.1862613298404865 102 81 62 0.62261798172865268 62 1187 26 1696 17 1126 100 1596 19 1183 77 1089 98 1086 21 318 3 216 64 849 15 135 56 17 99 25 41 114 7 354 68 1002 86 741 8 828 80 232 74 217 48 588 29 593 75 17
623 -0.11918892341107962 1.8633762674136427 2.1538762693233999 64 110 53 0.29742522588593173 17 1709 26 1698 100 1635 82 1768 98 1584 21 1803 3 1482 64 1476 15 1617 56 1357 65 1471 90 1773 58 1552 99 1171 7 1139 51 1475 67 1735 86 1318 12 806 46 866 75 850 39 742 50 873 49 758 66 597
624 -0.16040412483959748 1.8525876989081946 2.1482717982908763 176 170 100 0.41246457890570148 62 2087 26 1700 100 1629 19 2051 92 1618 90 2170 63 1055
625 -0.16006477407850989 1.8509949303630437 2.1525714598219121 176 170 100 0.39590179089709837 62 2088 26 1701 19 2050 17 2248 77 2175 82 2140 98 2100 21 1981 3 1910 64 1901 15 1783 56 1759 65 2016 90 2171 58 1905 99 1584 41 1523 7 1572 51 1998 47 1959 67 1744 79 1546 86 1704 12 1510 46 1234 75 1157 39 1031 50 1147
627 -0.72293151342844375 1.5131055361653198 3.5491804129401401 99 149 71 1.3339521442728515 17 1571 26 1704
628 0.16023599840460059 1.9655780178111937 2.1714067493338041 166 166 103 0.38049026678957015 62 1210 26 1705 98 1197
629 -0.81918268798165028 1.6822355988803559 2.2401108257302509 228 215 126 0.028645837073938595 62 1712 26 1707 19 1673 92 1649
630 -0.27513308851314977 1.8649847012888183 2.1234810969138134 222 211 128 0.32149224039199875 17 2050 26 1709 19 2055 82 2153 3 1719 15 1605 90 2186 58 1924 18 915
631 -0.59334256615422476 1.7924150805255421 2.1468824061438605 90 136 69 0.097422630824797768 17 1690 26 1713
633 -0.0018673417017870692 1.9928017076185209 2.1156052178477265 71 115 50 0.249568014453912 62 1731 26 1720 19 1758 77 1708 98 1621 3 1523 64 1120 15 1419 56 1397 7 1107 86 1360 75 871 39 505 66 373
634 -0.16664755120191072 1.9541172873930672 2.0965982310830755 73 132 69 0.22180807552006893 62 1732 26 1721 100 1642 19 1741 17 1729 77 1687 98 1608 82 1802 21 1539 3 1504 64 1496 15 1376 56 1347 65 1499 58 1566 99 1157 41 1081 7 1116 68 1446 86 1332 46 845 29 994 75 820 39 725 50 843 49 749 18 719 66 575
635 -1.0245353476000609 1.6876979761717579 2.2180097189977572 67 48 29 0.35237091942639881 62 1722 26 1722 19 1670 77 1580 17 1654 92 1672
637 -0.91609059490613498 1.7217051395228131 2.2463445256968368 87 95 51 1.0458889826888473 64 1316 92 1176 26 1725 65 1252 99 1316 41 1027 7 1214 39 709 50 753 66 699
638 -0.033286873336694021 2.0289834523293617 2.0915842567125384 77 127 61 0.25324797582152192 62 1741 26 1731 100 1655 19 1769 17 1754 77 1722 82 1799 98 1640 21 1569 3 1531 64 1516 15 1422 56 1384 65 1468 90 1786 99 1200 41 1088 7 1094 86 1364 75 862 29 1025 39 726 46 823 50 869 49 453 66 578
639 -0.78188649944651123 1.7993988174916555 2.182033493760418 90 139 68 0.11275305710592605 62 1735 26 1732
640 -0.13213200681827819 2.0070286077765283 2.080884075070685 76 138 71 0.03621598076623183 62 1744 26 1733
641 -0.79264976768450857 1.8229130772671269 2.1772666984774136 96 139 69 0.0084438949751106211 62 1739 26 1738
642 -0.74535516347994046 1.8438291540010869 2.1417307736660987 95 138 68 0.16044928933829897 62 1742 26 1740
645 -0.95741629004777107 1.8174864924139593 2.1953706917920597 227 211 119 0.18955119604610177 17 1205 62 1753 26 1755 19 1257 77 1170 82 1905 98 1153 3 950 21 1044 64 905 15 190 56 706 92 1203 65 1261 58 1785 90 1932 99 618 41 631 7 799 51 1685 47 1817 67 1897 79 1702 12 1392 53 1387 27 1247 36 1169 10 932 93 886 75 18 50 18 39 43 66 32 33 687 96 749 73 288 13 250
646 0.21843821888747808 2.1862182832278476 2.0938976203980948 255 253 251 0.37140615644511227 62 1774 26 1758 98 1948 21 1854 3 1569 56 1073 64 711 40 1653
647 -0.62574735699417294 1.9605399339811567 2.0724199064118944 235 219 132 0.073181834075316893 62 1770 26 1765 90 1900 79 1645
649 0.032025614485163917 2.2568182249561621 2.0560700319178853 171 177 117 0.6009102058001089 62 1812 26 1792 19 1833 17 1816 98 1692 64 1177 15 1460 41 690 68 1524 86 1611
650 -0.98790803854640086 1.956757025844865 2.1343112639292428 105 172 81 0.10390314165702332 17 1746 26 1794 64 1388 79 1990
651 -0.56882195257382961 2.092254396493348 2.0371857517610645 74 122 65 0.002755353237319538 62 1808 26 1796
652 -0.32282523711973776 2.215849286733675 1.989407512476562 238 223 141 0.10912174262458323 62 1826 26 1816 98 1684
654 -0.66065281891721395 2.127578767684533 2.0156122442607272 163 181 104 0.24869845633959453 62 1333 26 1821 82 1417
657 -0.28568354174202276 2.2589049907963274 1.9796868073878433 64 118 63 0.041070599739759302 62 1835 26 1827
658 -0.17515998238323671 2.2972556542118294 1.9804090979571618 64 118 65 0.082464509853591994 62 1836 26 1828 90 1866
659 -0.21412956089511662 2.2914391186642353 1.9822936787319583 66 116 63 0.11725191066579549 62 1842 26 1833
660 0.12946320883122031 2.4126335651553661 2.2180710411473812 255 255 255 0.22060258064786376 62 2165 26 1839
661 -0.404339277978365 2.2656898697372081 1.9804891560646092 219 212 136 0.2367370862225284 62 1850 26 1840 19 1830 17 1834 77 1756 82 1926 98 1701 21 1615 64 1532 15 1402 56 1282 65 1184
662 -0.94034825909880537 2.1051563631820152 2.1026850618162398 86 158 73 0.5401376909671376 62 1844 26 1842 82 1975 98 1249 21 1567 3 1046 92 1301 47 1826 53 1055 27 1237 36 1141 96 316
663 -0.94884876466725454 2.1354008969316531 2.0963987366768455 77 140 78 0.39084004722457177 62 1372 26 1849 100 1720 68 1764
664 -1.10632838478508 2.0932373768759165 2.3127081131859986 117 96 74 0.23023493982022852 62 1369 26 1853 100 1728 68 1136 8 948 80 365 74 342
665 -1.0769333330234934 2.1128693954338629 2.3130761812578253 85 63 42 0.10471875133633095 62 1376 26 1856 100 1735
666 -0.66411174115599325 2.2511676202276125 2.0062624136555143 83 153 75 0.20135801954446683 62 1874 26 1861 47 1762
667 -0.55054111389896121 2.2915130222981555 1.9832922529284127 72 134 67 0.10265362974526403 17 1842 26 1867 68 1532
668 -0.78620107026398645 2.2734585865303796 2.0645164473834545 116 148 93 0.41853733505874924 62 1393 26 1881 100 2029 90 1489
670 -0.72697409439467631 2.2930896400865683 2.0205153999225391 221 218 126 0.68802454287544101 62 1395 26 1883 100 1317 90 1987 67 1458 69 1104
671 -0.72854605187586308 2.3096267266772053 2.0325986583356905 68 138 77 0.40141815976016526 62 1399 26 1885 100 1769 92 2046 90 1992 67 1914 79 1696 68 1173 63 2162 84 2119 42 2169 35 2106 40 1931 69 1742 57 1985 95 1864 24 1770
672 -0.28113991161284196 2.4522698109399634 1.9938495571939168 83 171 99 0.38049083119320237 62 1893 26 1886 100 2045 92 2039 68 1989
673 0.052619286640113297 2.5582275943199266 2.11170699231731 0 0 0 0.40603741445633651 17 2150 62 1898 26 1888 92 2035
674 -0.17639735434951251 2.4884745967450574 1.9829871393150054 143 193 132 1.033543888183881 62 1409 26 1889 90 730
675 -0.3953091779756851 2.4308552854515195 2.0036372891865128 176 191 142 0.59768483453965604 62 816 26 1890 92 2041
676 -0.58729004403921325 2.37694204100461 2.009388882978429 76 154 87 0.6735604182821201 62 1897 26 1891 100 1782 92 2047 68 1804 63 1970 42 2058 84 1934 35 1844 40 1932 8 1696 80 1472 74 1280
677 -0.77014990895526347 2.348567369107657 2.1512358686775555 69 137 77 0.52172026117637527 62 1899 26 1893 100 1787 92 2057 90 2003 67 2209 79 1307 68 1562 63 1990 84 1969 35 1620 42 1652 40 1114 69 1519 57 1512 57 1738 24 1629
678 -0.089732928446102117 2.5649744348606709 2.0957866000294127 230 218 217 0.93492683826419976 17 800 26 1894 62 1420 19 870
679 -0.24667418706857666 2.5165769015103483 2.106798689348194 230 235 251 0.44207834072535035 62 1903 26 1895 100 2056 19 1461 92 2049 68 2006 63 1967 84 1930 8 1715 80 1490 74 1428 70 1192
680 -0.76924986386173733 2.3831435750820313 2.1556983923572148 120 98 53 0.68787041943486826 62 1905 26 1898 100 1792 92 1804 68 1569 63 1751 84 1296 8 1011 57 615 24 1070 95 1146
682 -0.7138898693698863 2.4111459773813371 2.1359697504528175 185 175 176 0.29278835453140578 62 1907 26 1901 100 1800 82 833 90 2004 47 1372 67 1486 79 1298 63 1748
683 -0.71605580628821619 2.4266976015721484 2.1548702982819159 77 57 39 0.94518822772875144 62 1912 26 1902 92 2067 90 1497 67 1488 63 1753 84 1721
684 -0.81018941779558074 2.4137160007561813 2.2503762531707538 189 176 160 0.56425410523311192 62 1911 26 1904 100 2055
685 -0.501832964539352 2.5155457639523182 2.1516709416105275 209 212 225 0.15633713937031379 62 1917 26 1906 19 850 90 866
686 -1.2724094931815857 2.3287755319750807 2.8591667182095812 213 210 218 0.54025509731565491 17 1806 62 1909 26 1909 19 1812 77 1709 82 1986 92 1819 90 2021 58 1807 47 1852 67 1953 79 1755
687 -0.42465696725246704 2.5828432728590949 2.2146940729031286 2 1 0 0.37201573557980067 62 1920 26 1911 19 1884 90 1481 67 1451
688 -0.052580937902201079 2.8313205272827937 2.6024393825161245 255 255 255 0.25268061815328535 62 1921 26 1913 100 2068 19 1893 92 1817
689 0.018320758370262633 2.8613373402826063 2.6536831601763025 254 254 237 0.23902285418751618 17 805 62 1438 26 1915 100 1826
690 0.040851066573908933 0.64853890191158259 1.4528853620949294 234 183 134 0.54155461555259954 62 1927 26 1919 19 2142 77 2071 98 1996
691 0.042131628512566396 0.64829786089679897 1.4542142540174718 234 183 134 0.68941017389959447 62 1928 26 1920 19 2143 77 2072 98 1997 21 1890 3 1954
692 0.054689803134383097 0.69805199950407537 1.4653765338851634 84 69 55 0.2411494289946651 62 1930 26 1922 100 2072
693 0.12512979236724861 0.72080537438031389 1.4910904986274451 233 219 199 0.83102329353883497 62 1934 26 1924 82 2262 58 2044 65 1952 51 1945
694 0.019765279019434586 0.69319245640087668 1.5005803346852595 107 80 52 0.39401451008493588 62 1932 26 1925 100 1405 82 1990 90 2029 68 759
695 0.070807960533512834 0.72933947538922728 1.5082184847856654 104 85 67 1.6492012605072865 62 1936 26 1927 100 1831 82 1991 92 1828 90 2314 40 1545 42 1707
696 0.070624723356666225 0.7269457003539036 1.5119763085119973 104 85 67 1.22145791705606 62 1937 26 1928 100 1832 82 1992 92 1829 40 1546 42 1708
699 0.07578400823941861 0.813878898143227 1.588539704047546 57 108 58 0.33496241065329807 62 1946 26 1934 100 1416 17 1892 19 1908 21 1673 92 1401 90 2035 67 1960 79 1363 68 1268 63 1338 40 740
700 0.23351213955676051 0.86401413633814172 1.5847925628400754 78 85 66 1.1105968670380792 62 1947 26 1935 100 2085 82 1498 77 904 98 876 92 2258 90 2318 47 1858 67 2440 68 1855 63 2185 8 1373 80 1212 74 1159
702 -0.35400342648842037 0.71799640701955159 1.8382495558937713 60 119 63 0.48893574952445418 62 1488 26 1944 100 1435
704 -0.30784867015405648 0.83815462960496701 1.8311253939073269 108 141 86 0.2788987949316411 62 1959 26 1954 92 1857
705 0.3386578658233857 1.0645763813238229 1.6976159656084155 185 193 142 0.52886424757698081 17 1496 62 1966 26 1955 100 2104 19 1938 92 1852 42 817
706 -0.31950359484376761 0.85279760860531939 1.8480516911606781 66 127 68 0.27360644461862899 62 1964 26 1957 100 1850 92 1859
707 0.22069759249587753 1.1123748621225993 1.7447888382806673 68 130 69 0.21019197824854777 62 1972 26 1965 100 1864 92 1860
709 -0.038769675079043942 1.0901325481120347 1.8818583184159818 109 144 94 0.11516445074851211 62 1979 26 1974 100 1870 92 1874 63 1818
710 0.10532246581404382 1.1680379127923681 1.864147196627032 66 128 71 0.30560678282459769 62 1987 26 1979 19 1951 17 1948 77 1882 82 2049
711 -0.55294693676743312 0.91782640837800955 2.0905732455160773 141 100 58 0.79515902282961171 62 1546 26 1980 100 947 19 970
713 -0.057551514349217701 1.1211817498191599 1.9690999572989467 61 121 66 0.054750747851767465 62 1989 26 1985
714 0.10915276935594094 1.1878157662614559 1.8955424409021957 147 161 112 0.27184296537528163 62 1991 26 1986 19 1957
715 -0.3612520802662223 1.0264720231506168 2.0772450230801587 63 127 70 0.095469650854471691 62 1990 26 1988 100 1875 82 2063
716 -0.49149637996846496 0.98927547922048964 2.1758492144192032 199 206 223 0.56868432633028765 62 1993 26 1994 92 1518
717 0.025339821952935916 1.2035124879507475 1.9772268610554771 153 159 113 0.095246805083445962 62 2000 26 1995 100 1882 19 1960
718 -0.36719145817315552 1.0605407150760151 2.1105891574669409 65 130 73 0.29134581516679958 62 1997 26 1997 100 1877
719 0.17475024549719725 1.3141997993125378 2.0143511651891393 60 119 64 0.61467434125228559 62 2004 26 2003 100 1893 19 1972 92 1894 90 1636 67 1616 79 1455 68 1691 63 1837 84 1458 42 1770 35 1724 8 1421 57 1304 95 1329 24 1256 48 919
721 -0.19586573066820798 1.2557469844202944 2.3313875561108408 190 191 204 0.46590323274409201 17 1534 62 2013 26 2012 100 1906 19 1593 77 1499 82 2076 92 1907 90 2127 47 1944 67 2046 79 2068 68 1701 63 1863 86 799 84 1843 35 1756 57 1651
722 0.28191123291556558 1.4809280393117801 1.989540595665116 194 204 222 0.018611326093282483 62 1604 26 2013
723 0.33886249358955195 1.5674543641636001 1.800715106749655 202 232 137 0.98900891431483462 62 2266 26 2016 82 2066 3 2007 64 1920 92 1526 65 1723 90 1070 58 1413 99 1702 7 1575 46 1092 49 729 18 18
724 -0.18995993549683235 1.2774566340258757 2.3500877699807066 98 83 64 0.95209061805069484 62 2015 26 2017 17 1538 77 1506 82 1633 15 207 90 2131 67 2048 68 1702 40 1626
725 -0.56671781195849269 1.1396834091468997 2.4907969313380813 126 95 66 1.2643484662475317 62 2014 26 2019 100 1546 68 1385 86 100 8 803
726 -0.0042828654952872308 1.3477387111575625 2.3016741742593778 186 190 203 0.78001177429931001 17 1549 62 2016 26 2020 100 1911 19 1985 77 1526 82 1616 15 885 3 245 90 1689 47 1038 68 1705 63 1860 86 1241 84 1842 35 1964 8 1442 69 1656 79 1836 95 1634 53 1228
727 -0.065045252819662266 1.3371542873551441 2.3148867384896978 87 75 46 0.72529057796041385 62 1607 26 2021 17 1028 100 1564 19 1609 82 1046 21 223 3 221 92 1560 65 251 58 1016 51 296 47 1055 79 1504 63 1530 84 1510 42 1796 35 1760 57 1352 95 1373 69 1329
728 -0.47466569514802548 1.1688378568578464 2.5429645701115571 2 2 2 0.3655553839744814 62 1601 26 2022
729 -0.030235027907388173 1.3559068626865445 2.3105618029298918 81 69 45 0.77161518056644696 17 1551 62 2019 26 2023 100 1914 19 1986 77 1527 82 1625 98 979 92 1911 68 1906 63 1862 67 1095 84 1509 42 1797 35 1757 40 1627 8 1444 70 1065 45 982
731 0.29005932915659732 1.6471090608015921 1.7610967006023983 86 152 81 0.10136216154388492 62 2034 26 2031 3 1749 99 1486 7 1132
732 -0.23461926152304155 1.328440447699923 2.520453231907835 228 211 115 0.12428173259427887 62 2026 26 2033 90 2140 67 2059
734 0.2743895228544711 1.672973278398489 1.7440731719594074 79 144 77 0.33827398357081151 62 2038 26 2038 92 1548
735 -0.85549660346690815 1.3272323383800717 1.9159163347879553 255 255 194 0.54706380766068974 62 2269 26 2039 100 1543 19 2196
737 0.27803095498601099 1.6114006986228575 2.4428108129826649 113 110 48 0.35669975399179921 62 2045 26 2046 82 2319 8 885
738 0.13393933274782116 1.5915399015007385 2.4014472282692561 81 145 72 0.41377954734116851 62 2046 26 2047 19 2017 17 1997 77 2140 82 2090 98 2061 21 1752 64 1877 15 1778 56 1791 65 1753 99 1624 41 1434 7 1482 47 1554 75 1201
739 -0.0017838795294498027 1.6094219259831113 2.3392598868735743 123 121 75 0.040889134456124215 62 2049 26 2051 90 2141
740 -0.38065477516517915 1.5664123740686677 2.2808130845601702 183 162 91 0.23006065484226837 62 2055 26 2054
741 -0.39712202074714964 1.5841204445168049 2.2859958201852693 72 145 65 0.44729814926344352 3 1659 98 1846 17 2006 15 1565 19 2015 41 1533 56 1723 58 2132 65 2037 75 1011 99 1551 67 2095 47 1989 79 1886 26 2057 62 2058 69 1373
742 0.17830609947830556 1.8677577973459685 1.6858240763787367 135 99 67 0.50483240810365804 62 2069 26 2060 92 1580
743 -0.17397830655649324 1.7140916761873761 2.2483798139149349 127 138 78 0.10507122774669335 62 2068 26 2066
746 -0.58680551676354964 1.659555138225463 2.2298437568333123 108 153 75 0.48601796462050517 62 2079 26 2075 19 2024 77 1929 3 1865 90 2205 99 1529 41 1345 56 1220 67 2348 79 2116 86 1506 69 1695 53 1302 46 1265 82 2370 39 1034 49 980 66 710
747 -0.14647679378493225 1.8723271634148055 2.1409924307688679 182 177 104 0.21768778215342213 62 2091 26 2082 77 2179 82 2142 64 1909 90 2172 58 1902 51 1805 79 1544
748 -0.35030279844888312 1.8150239200327372 2.1397663632559074 85 134 68 0.48382497049875056 62 2090 26 2083 100 1623 19 1706 17 1695 77 1967 82 2152 21 1794 3 1714 64 1707 65 1839 90 1809 58 1612 99 1387 41 1343 7 1433 47 1652 67 1772 79 1578 68 1433 86 1285 48 231 29 680 46 1116 39 914 75 999 50 806 50 995 49 763 88 523 18 744
750 -1.00078622732712 1.6527867889192209 2.2156715635697286 244 235 237 1.6847174450920903 62 2093 26 2091 19 1664 17 1134 77 1571 82 2408 100 2151 98 1098 98 1856 21 1757 3 1646 64 855 64 1295 15 1710 56 14 56 1140 92 1958 65 1266 65 1933 90 2250 58 2196 99 1311 41 1019 7 1229 51 1931 67 2389 79 2157 63 2117 68 1012 86 1184 12 1414 8 1199 80 1042 74 996 48 1132 29 1144 11 748 45 722
751 -0.69545250685797344 1.7646556457899238 2.162088747339014 100 143 71 0.35912297452693248 17 2034 26 2093 100 1946 92 1954
752 -1.0091421480997029 1.700988527557262 2.2245544594812729 194 180 158 0.16225934173626774 62 2100 26 2100 100 1944
755 -1.0712718063743913 1.72454044974927 2.315146779523606 198 176 156 1.3115914050490538 62 2109 26 2108 100 1954 82 2212 92 1977 68 1728 42 1856 63 2261 35 1821 8 1216 74 716 80 1060 48 940
756 -0.94252964452699939 1.7823167845420806 2.2154283028573887 215 212 117 0.53161027785086301 17 2040 62 2111 26 2110 100 1638 19 2038 77 1946 82 2416 98 1883 21 1772 3 1863 64 1641 15 1531 92 1970 65 2094 90 2455 99 1314 7 1587 68 419 63 2128 86 1212 75 953 39 881 50 958 66 778
757 -0.52129995274137053 1.9459648016812412 2.0688272292618994 74 123 63 0.23383728993610775 62 2117 26 2111
758 -0.10072156148592692 2.0773191613952608 2.0571636624679113 199 193 113 0.090572477285259911 17 2089 26 2113
760 0.2126283040441615 2.2111877561863791 2.0798333512044809 0 0 0 0.21735579546014328 62 2321 26 2121
761 -1.0167975166007883 1.8697176148256009 2.1799982623958964 194 199 107 0.60908960427987413 17 2062 62 2126 26 2125 100 1647 19 2047 77 1961 82 2221 98 2101 21 1791 3 1677 64 1651 56 1498 92 1700 65 2101 99 1309 41 1473 7 1430 46 1133 10 1124 93 1051 39 863 50 744 66 21 96 1231 73 1229 18 941 13 1353 97 861
762 -1.0155533279228703 1.870365064887251 2.1803731676483271 194 199 107 0.49248620275436727 17 2063 62 2127 26 2126 82 2222 92 1701 65 2102 90 2467 58 2202 51 2090 47 2267 67 2412 79 2167 63 1672 12 1761 69 1750 53 1762 27 1610
764 -0.85354841023887951 1.9803067669052588 2.0909176187679939 124 157 85 0.35920107372500132 62 2139 26 2136 92 1994
765 -1.0362927169189102 1.9300241343356428 2.1587360126992801 231 213 125 0.21261135178373936 62 2138 26 2139 92 2199
766 -0.78402178023968017 2.0076622057652935 2.1012904333759725 82 143 73 0.30524199136405872 62 2143 26 2140
767 -1.0854552635504979 1.9259930740467268 2.1809095230347824 96 172 77 0.32637168643558323 17 2071 62 2140 26 2141 100 1980 77 1968 82 2235 98 1906 21 1798 3 1686 64 1658 15 1214 56 1494 92 2006 65 1947 90 2475 58 2030 51 1935 47 2273 67 2422 79 1996 68 1455 63 1966 84 1941 12 1607 69 1937 53 1769 27 1617 36 1397 10 1128
768 -0.43009719022361237 2.1940786600686408 1.9909728051514777 71 121 66 0.2763501472890238 62 2155 26 2147 100 2008 17 2114 82 2216 77 2024 98 1953 21 1853 3 1768 64 1759 92 1998 65 1874 90 2242 47 2012 67 2143 63 1920 86 1570
769 -0.49162764361382177 2.1867648971740481 1.9936901252927783 66 118 64 0.263488282576193 17 2113 26 2149 100 2007 90 2249
771 -1.048201513832874 2.1153147813612283 2.3010869157302523 192 188 195 0.30944988365901011 62 2166 26 2166 100 2191 68 1957
772 -1.048201513832874 2.1153147813612283 2.3010869157302523 192 188 195 0.30944988365901011 62 2167 26 2167 100 2192 68 1958
775 -0.20648718278804182 2.4375437920216192 1.9782504810540416 201 198 112 0.7040645046617211 62 1889 26 2175 100 2210 67 1828
777 -0.77934872976936076 2.3633341309070985 2.1557241339785413 207 193 186 0.22501341319159499 62 2186 26 2181 100 2042 92 2059 68 1808 63 1992 8 1535 80 1144 74 1094
778 0.024387330968455325 2.6114744014717068 2.1596102953993306 224 179 144 0.83134987238252966 62 2189 26 2182 100 2305 19 2306
779 -0.082478654948815677 2.598221005168706 2.1333400936206282 226 233 251 1.0572895239139999 62 2194 26 2185 17 1400 100 2225 92 2242 68 2113 63 1964 84 1929 42 2069 35 2018 40 1947 8 1818 80 1586 74 1525
780 -0.73935922899673956 2.4059207190297367 2.1411711598373331 102 86 64 0.56702768794749914 62 2190 26 2186 100 2050 92 2065 63 1994
781 -0.6412107886000068 2.4442268971285936 2.120186565538495 228 218 219 0.19260266126359318 62 2192 26 2187 100 2218 92 2063 90 1994
782 -0.64188589963441722 2.4442860551418848 2.1193298165019745 228 218 219 0.22162022123930222 62 2193 26 2188 100 2219 19 2128 17 1861 77 1783 92 2064
783 -0.016624895315657917 2.6495143340351976 2.2162400914157323 97 75 54 0.72675803426835894 62 2196 26 2190 92 1796
784 -1.2244818052590278 2.3039855734653454 2.8365139740016274 243 253 255 0.48668944947014853 62 2187 26 2192 100 2054 19 2101 77 1705 82 2259 92 2250 90 2310 63 2184 84 2149 57 1909
785 0.09879895291444292 0.70572516748344827 1.4614346201597233 112 85 61 1.0714419536592923 62 2202 26 2197 100 2071 19 2314 17 2156 92 2077
786 -0.13097965076492854 0.62293352036848482 1.5513977564589574 125 102 79 0.68710988511229132 62 2203 26 2199 100 2074 19 2310 82 2268 92 2081 86 1634
787 0.1708618900180702 0.75490334417881744 1.4809142786244909 117 91 67 0.42022458883902769 62 1935 26 2202 82 1988 17 1883
788 -0.15305883892799052 0.63915877580548297 1.583911506687993 148 131 70 1.1149987666025667 62 2205 26 2207 19 2146 8 1583 80 1382 74 1326 11 1027 45 840
789 0.16441553393911967 0.79704017004332783 1.4867371824629736 84 72 60 0.76447179845553581 62 2207 26 2208 100 2080 68 1849
790 0.19812182059200348 0.81019523242041591 1.5051892823558202 143 113 71 1.1164348276675899 62 2209 26 2209 100 2081 19 2157 82 2266 92 2084 65 1711 68 1850 40 1767 8 1589 80 1387 74 1331 48 1251 29 1117 70 1040 88 431
792 -0.24944741318412697 0.65470482255036966 1.6810619782013017 217 218 230 0.31487158938495502 62 2211 26 2211 19 1895 90 2046 47 1471 86 1432
794 -0.187558883289004 0.74140153915906859 1.6833268117840128 148 149 100 0.22538337473744668 62 2217 26 2216 100 2084 82 2281 92 2090 90 2334 67 2253 68 1628 63 2026 84 2001 42 1718 35 1680 95 1767 69 1804 24 1683
795 0.17181763148723328 0.88820804149620369 1.6048062561824388 55 93 50 0.14677258920682232 62 1949 26 2219 100 1843
797 0.29079088347653059 1.0851418167903588 1.710831555843102 68 118 58 0.36532290855990729 17 2187 62 1967 26 2237 19 2180 77 2107 15 1740 92 2104 42 1733
798 -0.25935968704876311 0.9724827232084603 1.9084551559718155 143 153 108 0.16377513755905124 62 2239 26 2242 19 2172 92 2114 100 2110 90 2361 67 2287
800 -0.30411803426684764 0.9535080824431803 1.9293879676530428 59 121 66 0.25131746203104438 62 2238 26 2244 100 2109 68 1870
802 -0.2567556498614923 0.99418910542934247 1.9333436129001658 61 122 66 0.38718332578235998 62 2243 26 2248 100 2114 68 1874 84 2168 42 1980 35 1932 40 1788 57 1797 57 1929 95 1788 24 1699
803 0.1627777902157162 1.1758619402229786 1.8472323474461632 64 130 72 0.52943551074427131 62 1985 26 2251 100 2121 19 1952 82 2298 92 2118 90 1602 90 2349 58 1836 65 1725 67 1987 68 1880 8 1613 80 1406 74 1348 48 1122 29 1142 40 1576 42 1746 70 915 35 1706 63 2044 47 1885 79 1785 51 1374 69 1605 57 1612 24 1228
805 -0.32911940776079018 1.0302691897518106 2.0435633166812948 146 154 105 0.28712357666135024 62 2249 26 2254 100 2120 68 1882
806 0.31408359460229701 1.2807895289477216 1.9691182879552378 91 110 67 0.64734747417974481 62 2252 26 2255 92 1884 42 1758 35 1387 40 1588
807 -0.15314073631398273 1.2723350137260538 2.3123359623629605 178 182 195 0.59225051951577168 17 1956 62 2261 26 2261 100 2134 92 2137 90 2123 79 1846 68 2053 63 2077 84 2055 40 1917 8 1766 57 1826 95 1817 80 1530 74 1370 48 1272
809 -0.80398385603286693 1.208082317078814 1.9658397328247224 110 175 83 1.2901802445490778 62 2401 26 2264 100 1891 19 1958 19 2418 98 2261 21 2129 3 2039 92 2138 86 1853
810 -0.46116706271115016 1.1876232436319298 2.6244693827667671 0 0 0 2.2975706630444397 26 2268 100 2139 8 1767 68 2138 80 1604 74 1470 62 2020
811 -0.49157942413237227 1.2337292669155313 2.6028807186031093 193 198 109 0.3158495719925391 62 2403 26 2271 100 2140
813 -0.87150834717909409 1.4049783414485186 1.9144452500086964 98 81 59 0.23044216617881283 62 2271 26 2277
814 -0.82262912863815985 1.434988860386162 2.1635996089250749 0 0 0 2.3422493610881725 62 2273 26 2282 77 1898 17 1578
816 0.21229332931491268 1.8810992519732768 1.7087597563520718 253 252 250 0.59577102627823086 62 2281 26 2289 92 2146 63 2076 35 2075 42 2134
817 -0.43638683345677454 1.6278954122979175 2.2483865091685895 79 140 63 0.47948132271892902 17 2225 26 2290 19 2221 77 2270 98 2189 21 1949 3 1867 64 1966 15 1861 56 1719 65 2044 58 2138 99 1548 41 1616 7 1600 51 2036 86 1675 12 1710 79 1892 46 1342 75 1227 39 1115 50 1222 49 1081 18 1028
818 0.16292296437159179 1.90190806340202 1.7147894429726256 104 86 49 0.21832323206870499 62 2285 26 2291 92 2148
820 -0.71738251361287075 1.6060317066691669 2.2753085504656863 99 147 69 0.21732097484353213 62 2074 26 2295 100 1936 19 2220 92 1942 86 1492 4 653
821 -0.2704233358449461 1.7551696389192426 2.1825114155125362 158 153 92 0.46538208114111029 17 2358 26 2296 98 2203 21 2072 82 2358 3 1995 64 1981 15 1872 65 2158 90 2394 58 2259 99 1664 41 1614 7 1671 67 2323 86 1799 46 1332 10 1197 51 2160 39 1111 50 1225 49 1140 18 1099 66 851
822 -1.019176270449947 1.6047838226198561 2.219535240749031 101 78 53 1.0606829098557595 17 2228 26 2300 19 2014 68 1419
823 -0.76700765667380721 1.7113756219549858 2.2277345710387149 220 206 120 0.06824010770907285 62 2293 26 2303
826 -0.53017087996045675 1.8168285821610277 2.1317639505309085 213 200 117 0.1537796788513377 17 2247 62 2296 26 2307 82 2384
827 0.050383697477102071 1.9965502959798247 2.1331458894762259 65 106 50 0.33695845277636222 62 2300 26 2308 100 1967 68 1743
830 -0.65823558438568008 1.6957578882853495 3.5304379363145402 188 188 106 2.073264864921422 17 2220 26 2314
831 -0.059372646197112688 2.0518415380969546 2.0744975534690799 235 220 132 0.47523791843804941 62 2422 26 2316 100 2282 19 2376 77 2304 82 2511 98 2232 21 2097 3 2018 64 2000 15 1892 65 2151 90 2400 92 2165 58 2246 99 1676 7 1656 51 1992 47 2168 67 2318 68 2079 86 1819 29 1421 75 1239 50 1227 39 1104 49 1046 46 1319 66 789
832 0.22553962371257694 2.1518931939758508 2.0395087585829486 0 0 0 0.26418629759089679 62 2310 26 2320
833 -0.90310159570017912 1.8363582385141775 2.1674210911434488 242 222 127 0.21725749773804603 62 2116 26 2321 92 2181
836 -1.0655970941181629 1.8201323294167737 2.2354845087567332 65 113 50 0.53781809280703852 17 2250 62 2312 26 2326 19 2041 77 2155 82 2545 21 2067 64 1961 15 1717 86 1199 75 1102 50 1083
837 -0.4679040061355273 2.0255254462411689 2.0385693001163707 71 123 64 0.24668144524788804 62 2317 26 2328 19 2264 17 2276 77 2194 82 2411 98 2120 21 1994 3 1922 65 2064 90 2433 58 2150 41 1484 67 2355 79 2115
838 -1.0929350894502634 1.86113619510506 2.2189507075493253 72 119 52 0.46255126349841946 17 2256 62 2318 19 2243 77 2160 82 2547 98 2099 3 1868 21 1968 26 2330 41 1471 56 1678 64 1849 86 1207 92 2322 100 1971 68 1444
839 -0.48928677668414011 2.0708720137880903 2.053815680500501 70 120 64 0.021004566654007524 62 2326 26 2333
840 -0.088676143715006484 2.2256888097305598 2.000714233140819 239 227 145 0.17421175893142393 62 2333 26 2336
841 -0.086852629294799463 2.2259137665162099 2.0110011031700026 239 227 145 0.23539206292326281 62 2334 26 2337 82 2400 65 2019 58 2114 51 1994 12 1490 47 1962
842 -0.094043348749601144 2.2530078233049964 2.0002155746962997 77 131 72 0.26884036346160672 62 2338 26 2339 100 2186 65 2022 68 1780
843 -0.1137668511196044 2.3128790848737282 1.9806821341909915 78 125 69 0.19038885024115171 62 2447 26 2348 92 2193
844 -1.0049126326227904 2.0596743415277814 2.1217522240312174 209 213 114 0.89753877067489418 62 2342 26 2351 100 2177 82 2245 92 2218 90 2481 47 2269 67 2423 79 2300 68 1944 63 2160 84 1946 57 1874 95 1971 24 1775 53 1763 27 1458
846 -0.24273500865266481 2.3301493001393978 1.9735764759629864 68 120 62 0.052355273417433644 62 2349 26 2354 64 1778
847 -0.081865160256319125 2.3870368584380577 1.9767789953554273 244 230 152 0.2132663481174511 62 2351 26 2356 19 2297 8 1704
848 -1.0820527936965494 2.0910318181921621 2.3055049194007191 204 203 212 0.80622373864807251 62 2163 26 2357 100 2187 19 676 68 2088 8 1670 80 1460 74 1408
849 -0.098621795738187593 2.4106579378739585 1.9774323622883698 79 127 64 0.44620248761207765 62 2353 26 2359 19 2300 77 2239 21 1884 92 2211 68 1985 63 2121 86 1749
850 -0.67620125569489253 2.2419648439768443 2.0160716686558064 81 152 75 0.29086956042349543 62 2352 26 2360 100 2194
851 -0.32253887150486305 2.3507153356107668 1.9701956304169366 71 127 63 0.32511991859640865 62 2355 26 2361 100 2203 19 2292 77 2232 17 2311 3 1795 21 1877 64 1776 15 1654 92 2214 41 1278 68 1974 86 1595 12 1176 8 1695 80 1473 74 1282
852 -0.26316036908151241 2.3762204206183042 1.9717276459453821 75 132 64 0.36370210846669176 62 2357 26 2363 100 2207 19 2295 17 2313 77 2234 92 2215 68 1977 8 1699 80 1350 74 1285
854 -0.34101938242400198 2.4026611855674287 1.9753782759950773 72 130 57 0.34527847690396851 62 2365 26 2368 100 2209 77 2235 17 2318 82 2438 92 2226 90 2453 67 2158 79 1931 68 1984 63 1947 86 1596 8 1540 80 1351 74 1289 48 1213 29 1243
855 -1.1858658462300178 2.1691101354798659 2.5778680227024036 216 228 249 0.12038515641151232 62 2177 26 2370
856 -0.10506547956583952 2.5729475618753921 2.1057573990922247 117 95 74 0.3862961754416932 62 2372 26 2374 92 2239
857 -0.82410882523923346 2.3761620544857327 2.2027735441495384 71 56 41 0.69619625747122005 62 2188 26 2376 92 2419
858 -0.52072778691066457 2.4837163168631959 2.1116404136851328 242 239 248 1.1637937915678707 62 2373 26 2378 100 2220 19 2303 17 2147 77 2060 82 1473 92 2060 90 1983 68 1826 63 1979 67 1907 84 1953 42 2075 35 2119 42 2182 40 1716 8 1558 57 1881 95 1871 24 1617 80 1362 74 1425 80 1486 48 1347 29 1363 70 1006 11 1096
859 -0.057316812613879775 2.8637165437372811 2.6151862683879883 130 122 116 0.41238969807248455 17 2329 62 2379 26 2380 100 2226 19 2308 77 2068 82 2451 92 2356 90 2592 68 2015 63 2293
860 -0.057952112094291568 0.6388932971279272 1.5101039044487741 58 41 25 1.5532363464850583 62 2381 26 2382 100 2070 19 2311 92 2251 68 1618 8 1365 80 946 74 912 48 1091
861 -0.019082299404162683 0.66293599999491115 1.5105944227500332 199 202 216 0.75170197329705191 62 2382 26 2383 92 2252 100 2228 68 2017 42 2101 40 1881 8 1730 80 1377 74 1322 48 1246 29 1109 70 1037
863 -0.18818793317875751 0.62927766290995824 1.5867637854671597 195 195 205 0.57283409364219995 62 2386 26 2387 19 2312 67 2443 86 1755
864 0.35909421112568829 0.9754395868340674 1.6319353090381186 29 53 26 0.56898320980589856 62 2223 26 2392 100 2317 19 1924 17 1477 77 1460 82 2001 65 770 90 2607 58 1367 51 790 68 2120 8 1599 80 1394 74 1162 70 907
866 -0.66641189372976928 1.0226712290399353 2.0239470197443734 198 211 110 0.67848137522803498 17 2335 26 2401 19 2175 100 1876 77 2246 98 2258 3 2038 64 2055 15 1831 56 1884 92 2130 99 1712 68 1331 86 1635 75 1215 88 433 29 30 50 1266
867 -0.23285357218275601 1.191805786520747 2.2454827192831344 59 129 71 2.2784844320530171 100 2324 92 2440 68 2189 63 2410 42 2379 84 2451 35 2280 40 2148 8 1915 80 1664 74 1668 26 2402 62 2400
868 -0.50519564713200626 1.1892674865151309 2.5555259311407417 221 213 214 0.51188759529152306 62 2402 26 2404 82 1669
870 -0.95200822859063627 1.5775615395029461 2.2011358084112453 250 241 245 0.26204243332306038 62 2412 26 2410 100 2268
871 0.11225114002230158 1.8892150382942656 2.2022444684831477 72 139 69 0.14754082706861235 62 2414 26 2411 90 2539
875 -0.92413585174701163 1.8123881922712164 2.1974889432765288 89 156 69 1.1700914456446228 17 2369 62 2421 26 2421 92 2318 65 2267 90 2641 12 1964
876 -0.96757483125739197 1.8062778386836367 2.1973964679318518 208 205 112 0.83764356324548772 17 2367 62 2419 26 2422 100 2275 19 2361 77 2281 98 2205 21 2068 3 1982 64 1963 92 2321 99 1499 63 2341 84 2301
877 -0.54458143061176345 1.964775374753301 2.0638662659548883 235 217 129 0.35988392667753882 58 2288 65 2183 82 2527 62 2426 90 2565 3 2002 51 2171 98 2217 17 2374 19 2369 21 2086 47 2347 64 1991 99 1652 77 2292 12 1818 100 2280 26 2423 36 1483
878 -1.0893826176027204 1.7888099431120976 2.2805400078911497 130 169 82 0.75983477109166186 17 2366 62 2423 26 2424 100 2276 19 2359 77 2276 82 2631 98 2201 21 2060 3 2054 15 1849 56 1808 92 2402 41 1655 86 1656
879 -0.42472586718132072 2.0225090350088593 2.0416950909517819 237 224 134 0.30614560836533422 62 2430 26 2426 100 2283 19 2375 77 2300 17 2378 98 2230 21 2090 3 2009 64 1997 15 1877 56 1836 65 2172 90 2561 58 2276 41 1596 7 1658 51 2168 67 2497 86 1801
880 -1.0787271312879612 1.988869666407473 2.1714418052135032 179 195 104 0.31578475687316304 62 2443 26 2433 82 2557
881 -0.20373602920966416 2.3248495061766734 1.96697161070663 236 225 143 0.22657216741998096 62 2450 26 2436 92 2329
882 -0.57485507158783966 2.3192556556949047 1.9849921405247375 238 229 146 0.19473342134838845 17 2310 26 2442 63 2267
883 -0.39368236801850076 2.4100834465802898 1.9823339682161871 107 180 79 0.38404814783374713 62 2457 26 2444 100 2299 19 2398 90 2584 68 2102
885 -0.65944121786142906 2.3965137080028356 2.0967639215901244 103 171 104 1.0543667092030662 62 2370 26 2446 100 2365 19 2293 17 2315 77 2227 82 2252 92 2244 92 2418 100 2048 90 2477 67 2202 63 2286
886 -0.0094211026997137199 2.5931906870686734 2.1148836209973045 61 39 19 1.2960900488580671 62 2460 26 2447 100 2367 92 2236 68 2174 8 1902
887 -0.58815553797123088 2.5177032939345776 2.1945230958204607 146 131 114 0.3881376558907057 62 2375 26 2449 19 2133 90 2295 67 2417 79 1983
888 -0.47220502251486141 2.5813224897087546 2.2653409825057569 0 0 0 0.56811261218398268 62 2376 26 2450 100 2368
889 0.023681456468938111 0.68952642341083603 1.4712580568715961 129 106 68 0.62115219505166774 17 2468 26 2453 92 2358
891 0.14861321594113056 0.75397579502712664 1.5057001839853095 128 111 94 0.20064179492208734 62 2465 26 2456 100 2313
892 0.25550611584939331 0.96168941779324923 1.6309151822774028 159 169 115 1.5104135652394513 17 2408 26 2458 100 2369 77 2329 82 2573 98 2257 21 2126 3 2048 15 1924 56 1930 92 2426 65 2274 63 2306 86 1859 84 2253 42 2278 35 2135 62 2521 29 1503
893 0.32956472114085572 1.0793506705861522 1.7041020111664515 193 203 152 1.0109248113292326 62 2473 26 2462 100 2320 19 2415 92 2362 68 2036 86 1863 42 2110 35 1919 40 1778 8 1744
894 -0.15378823951891263 1.2275991693481412 2.3047624276274461 67 90 59 0.9044551647803597 62 2476 26 2468 100 2325 19 2423 92 2374 90 2617 67 2558 79 2333 68 2134 63 2321 86 1865 84 2276 42 2228 35 2153 57 2040
895 0.2591899336078991 1.3894765880837388 2.1697317606040372 101 160 103 1.1986999668685487 62 2477 26 2470 100 2258 19 2341 92 2372 63 2319 84 2274 42 2137 35 2076
896 -0.84189171908862914 1.2199408491997363 1.9513545454020529 0 0 0 1.0564269425493757 17 2342 62 2478 26 2472 100 2131 19 2192 19 2419 77 2251 15 1696 15 1912 92 2375 68 1681 48 890 8 1406 75 952 29 1124 88 1035
897 -0.061000057683597786 1.4529182899642821 2.4589735641336219 94 111 61 0.90473438543264606 62 2536 26 2475 100 2332 19 2481 17 2483 77 2395 82 2655 92 2289 90 2674 67 2621 86 1930
899 0.17578838661275531 1.9322017078055134 1.7471148277938164 255 255 255 1.600276757880853 62 2486 26 2480 92 2295
900 -0.87635604609375028 1.6485081716572894 2.2894534728643596 112 127 71 1.276271794106645 62 2487 26 2481 100 2338 19 2432 77 2351 98 2322 21 2145 3 2049 64 2014 15 1920 56 1883 99 1711 41 1664 7 1728 68 2064 86 1915 42 1833 35 1035
901 -0.086773253786628965 1.8985215127081128 2.146799434292237 94 125 64 0.67908409095464162 62 2489 26 2482 100 2274 19 2435 77 2362 82 2606 98 2284 21 2160 3 2068 15 1942 56 1909 92 2393 90 2624 99 1737 41 1672 7 1717 47 2324 90 2546 67 2481 86 1811 50 1279 18 1095 66 849
902 -0.56720371993654284 1.8014845402101451 2.1449192860642929 87 133 66 0.74783909793897385 17 2438 26 2484 77 2359 82 2616 98 2283 21 2155 15 1929 3 2058 56 1892 65 2299 64 2070 58 2404 99 1759 41 1663 7 1753 51 2294 86 1874 12 1904 53 1933 27 1709 88 1141
903 -0.84791391285137552 1.7499484105653251 2.2053123290127692 126 164 81 0.61545341323949287 17 2436 26 2487 77 2356 98 2279 21 2150 3 2057 82 2666 92 2311 65 2262 67 2586 63 2247
904 -0.8478194367819194 1.7501777665388623 2.2056295059426629 126 164 81 0.62768277806431128 17 2437 26 2488 77 2357 82 2667 98 2280 21 2151 3 2056 92 2312 65 2261 67 2585
905 -0.39325622769984764 1.9240409988282383 2.0807931163978051 237 238 141 0.53008783335578646 62 2492 26 2490 82 2617 64 2029 65 2251
906 0.18621175022965988 2.114591181869534 1.9718374034712245 139 119 97 1.0723491346227001 62 2495 26 2491 82 2364 92 2305 65 2138 58 2078 51 1964 47 1923 12 1115
907 0.13930216242291069 2.15309616375065 1.9865673151663166 123 95 70 0.94117844527908634 62 2497 26 2492 100 2349 19 2443 77 2308 17 2386 82 2510 98 2239 21 2102 3 2024 90 2391 67 2311 84 1852 58 1872 95 1387 24 1309
908 0.033254375083494055 2.1573317346798184 2.0738998283497856 69 85 44 0.96770853511312049 17 2448 26 2494 100 2287 19 2383 77 2307 98 2293 21 2167 3 2078 64 2046 15 1902 56 1921 99 1746 41 1667 7 1711 68 2085 46 1316
910 -1.1142802978436404 2.1060517432150752 2.3509580497474034 105 85 66 0.91241301149892318 62 2452 26 2502 68 2163
913 -0.13037692897181699 0.81251304287882753 1.680408439452524 87 126 72 1.250373517665254 62 2517 26 2512 90 2654 67 2604 79 2377 63 2350 84 2330
914 0.10881153045952514 1.0169498571718849 1.7082606839064582 62 122 66 0.8129931891574157 62 2523 26 2514 19 2462 17 2472 82 2642 92 2429 100 2372 68 2181 84 2254 42 2206 35 2137 8 1832 57 2019 40 1974 95 1902 24 1817 80 1593 74 1534 69 1973
915 0.31097420661107172 1.1470692027073794 1.7888692752389401 146 180 120 0.70248001967411844 62 2525 26 2516 100 2374 19 2465 92 2366 68 2183 63 2312 86 1917 42 2210 35 2057 40 1977 8 1910 80 1655 74 1607 48 1499 29 1508 70 1256 11 1224 45 1127
916 -0.18878713901969035 1.1805896400286451 2.1518221927816916 124 151 100 0.68005505323023263 92 2479 90 2712 67 2674 79 2450 84 2405 42 2342 35 2242 40 2103 57 2182
917 -0.59112810215066836 1.1074663824842659 2.3911879516725936 0 0 0 0.75700025527709991 62 2528 26 2521 17 2476 92 2281
918 -0.21252464995828566 1.2293636829340473 2.3304309326605921 198 193 200 1.1138744456167686 62 2529 26 2522 19 2421 92 2443 63 2367 86 1775 84 2344 40 2061
919 -0.20583535861087962 1.2381066093529289 2.3177808328617755 198 193 200 1.4771281080431709 62 2530 26 2523 19 2422 17 2416 77 2334 82 2581 98 2030 21 1700 3 1287 15 1540 92 2444 65 1996 90 2619 58 2238 51 2001 47 2404 67 2560 79 2336 86 1776
921 -0.3182460486153994 1.2725976980052176 2.5708329180372154 217 218 114 0.23753387345175769 62 2532 26 2528 100 2327
922 -0.2098635718153618 1.4029727887744945 2.4524742685837837 78 101 50 1.2094678036917652 62 2582 26 2533 19 2513 17 2512 77 2428 82 2691 98 2348 21 2208 92 2383 65 2324 90 2719 58 2440 51 2336 47 2524 63 2225 86 1961
923 -0.48369409891870668 1.3070301789548591 2.5339261637239185 105 123 59 1.109020237047031 62 2535 26 2534 19 2510 92 2291
924 -0.98312280947994568 1.9011183636486881 2.161649796431067 86 152 71 1.1910404220032789 17 2493 19 2490 77 2404 21 2193 3 2099 15 1923 56 1933 90 2750 100 2347 67 2716 79 2490 53 2079
927 -0.76441627047911709 2.3119673288887141 2.066677620952424 76 147 83 0.29597899644842712 62 2556 26 2551 82 2562
929 -0.056906011682098016 2.569200814583664 2.0974712596158125 249 236 231 0.92957975688402039 62 2557 26 2553 100 2415 68 2220 8 1994 80 1701 74 1648 70 1280 11 1169 45 1022
930 -0.68249870898181897 2.444536887621426 2.1347393586248762 62 41 12 0.79373268773815187 62 2511 26 2554 100 2413 92 2505 90 2649 63 2440 84 2474
931 0.043151486328141531 2.8216887525663457 2.7515761806448857 0 0 0 0.41864363571033814 62 2559 26 2555
932 -0.23051679308363726 0.69421750284564465 1.6977924752614495 66 113 63 1.0087523789335981 62 2561 26 2557 19 2502 98 2340 77 2420 21 2202 3 2112 64 2077 56 2012 64 2110 92 2465 65 2313 90 2706 82 2679 58 2422 99 1829 41 1807 7 1866 51 2317 47 2501 67 2660 79 2430 63 2394 84 2386 12 1980 42 2277 35 2190 40 2044 69 2235 57 2159 95 2145 24 2052 36 1709
933 -0.29016927459651959 0.73921489997727219 1.7487808644119627 120 141 88 0.79001088196555058 62 2564 26 2559 100 2418 98 2341
934 -0.17930907702640841 0.83781447814768328 1.7306496046627067 60 115 61 0.70535682314975989 62 2566 26 2563 100 2422 92 2470 67 2662 79 2433 47 2502 63 2399 84 2392 69 2239 57 2101 95 2087
935 -0.17958636743600304 0.83873040669101917 1.7307925781635261 60 115 61 0.83074103208448069 62 2567 26 2564 100 2423 92 2471 67 2661 79 2432 63 2398 84 2391 8 1907 69 2238 57 2100 95 2086
936 0.29986100049843895 1.0141467783376674 1.6455155222083924 166 173 121 1.1851960717914953 17 2508 26 2565 100 2426 19 2505 77 2423 82 2678 98 2312 15 1968 92 2427 90 2704 63 2395 86 1950 84 2329 42 2280 35 2191 40 2047 8 1951 57 2017 69 2080 95 2000 80 1707 74 1654 48 1546 29 1552 70 1290 45 1126
937 -0.25040197044257956 1.108759894822311 2.0966244640094858 66 134 74 1.3464124081504012 62 2573 26 2571 100 2432 92 2535 68 2235 63 2469 42 2374 35 2275 40 2141 8 1961 80 1659 74 1610
938 -0.24966233682089273 1.1079941804656628 2.0988091250792658 66 134 74 1.2675440611803699 62 2574 26 2572 100 2433 92 2536 68 2236 63 2470 42 2375 35 2276 40 2142 8 1962 80 1660
940 -0.10905673252917775 1.3252081263255562 2.3289903899557087 81 77 37 1.4286588938990878 62 2578 26 2575 17 2479 19 2474 77 2339 82 2652 98 2265 21 2038 3 1969 64 1842 56 1761 65 2141 90 2716 58 2333 99 1418 51 2227 47 2459 86 1868
942 -0.20129293635740167 1.3148248081935496 2.5311923394286904 172 195 96 0.37658259387902909 62 2579 26 2577 90 2718
943 0.1182362328668884 1.4895888696800286 2.4796239615388598 212 209 114 0.7865905771275804 62 2583 26 2580 100 2441 92 2446 90 2671
944 -0.27214252017948376 1.4558428928680156 2.4039630254136886 175 160 89 0.85400540678969317 62 2584 26 2583 19 2516 17 2514 77 2430 82 2693 98 2386 21 2236 3 2150 15 2039 92 2386 90 2725 58 2446 65 2379 99 1838 99 1839 51 2340 47 2528 67 2624 79 2395 86 1957
947 -0.052536541711930972 1.7388584862050849 2.2384908835685242 118 129 76 1.1526066274895652 17 2525 62 2590 26 2587 19 2530 77 2445 82 2699 21 2216 3 2125 64 2096 56 1981 65 2321 90 2677 58 2434 41 1736 7 1792 51 2281 47 2460 79 2235 86 1977 12 1945 53 1812 46 1462 27 1541 36 1653 75 1381 50 1389
948 0.10946547167220104 1.8290211656609554 2.2216965829308357 142 159 92 0.80668930521729765 62 2592 26 2590 3 2176 64 2162 56 2038 99 1801 41 1792 7 1834
949 -0.24408562120542462 1.7760408199926536 2.1766086547313166 153 149 88 1.2132038491794794 62 2594 26 2592 82 2702 98 2404 21 2259 19 2532 3 2168 64 2151 56 2020 90 2729 82 2768 58 2492 99 1840 41 1780 7 1835 51 2334 47 2529 67 2687 79 2462 86 1974 12 1993 53 1989 46 1458 27 1774 36 1725 75 1371 39 1252 50 1383 49 1249
950 -0.66403839884087201 1.6569092859149517 2.2381383777542125 146 171 89 1.0153929832615509 62 2649 26 2593 17 2583 100 2447 19 2584 77 2491 82 2775 98 2398 21 2249 3 2155 64 2128 15 2036 56 1988 92 2491 65 2411 90 2794 58 2522 99 1810 41 1772 7 1846 51 2402 47 2599 67 2757 79 2519 68 2196 46 1513 75 1355 39 1249 50 1360 49 1278
951 -0.39304827450104118 1.8350297803724143 2.1278204218442669 81 129 64 0.88742573346406417 17 2534 26 2596 77 2446 21 2261 3 2126 64 2094 65 2338 58 2454 41 1727 41 1771 51 2343 47 2536
953 -0.24635896554125714 1.9044420544159126 2.1100379395590663 70 125 66 0.80320800814791815 17 2538 62 2605 26 2601 19 2536 77 2454 82 2705 98 2362 21 2224 3 2131 64 2102 15 2017 56 1975 92 2450 65 2328 90 2680 58 2450 99 1794 41 1731 7 1776 51 2289 47 2468 67 2627 79 2338 63 2329 86 1979 12 1952 29 1536 46 1449 75 1332 93 1230 50 1331
955 -0.039041976927724403 2.0755254447091778 2.0683699669975706 159 169 96 0.77655841867118647 17 2613 62 2606 26 2604 100 2456 19 2612 77 2518 82 2778 98 2426 21 2281 3 2191 64 2173 15 2072 56 2033 92 2496 65 2378 90 2787 58 2490 99 1856 51 2324 58 2438 47 2522 67 2684 79 2459 68 2267 63 2412 86 2017 12 1982 8 1985 80 1739 74 1680 48 1567 29 1572 46 1445 36 1639 10 1347 39 1219 49 1233 18 1185 66 921
956 -0.83761475858735512 2.1586441621756181 2.0641902737959721 192 196 116 1.2952290538739699 62 2613 26 2607 100 2525 19 2494 92 2501 67 2718 79 2489 63 2438 84 2428 42 2355 35 2214 69 2276 57 2200 95 2184 24 2090
957 -1.0578760937262712 2.1935540084734879 2.4556726556009187 0 0 0 0.99445528505732517 62 2553 26 2609 92 2614
959 -0.34255544556282025 0.67311193072061892 1.7872724504462536 78 117 69 1.9195553393043077 62 2618 26 2612 19 2556 17 2547 77 2466 98 2376 15 2027 92 2466 90 2761 51 2375 47 2567 67 2792 79 2501 68 2179 63 2446 84 2332 42 2282 40 1970 69 2285
960 -0.0077682036634653439 0.82839393205163137 1.6274495163351084 61 116 60 1.2873926175240427 62 2620 26 2615 100 2466 92 2511 90 2755 63 2443 67 2726 84 2384 69 2232 57 2158 95 2144 53 1964 27 1752
961 0.12217525377746148 0.94527414362790951 1.6481689966809367 61 117 63 0.66136145915203537 62 2624 26 2619 100 2470 19 2566 82 2732 92 2513 90 2757 68 2279 63 2444
962 -0.25117502599413744 0.83689139374612798 1.785167849395368 121 143 92 0.82505352570498947 62 2625 26 2621 100 2471 19 2562 17 2553 77 2472 82 2737 92 2517 90 2764 67 2732 68 2227 63 2448 84 2438 42 2329 35 2230 40 2086 8 1949 69 2287 57 2163 95 2149 24 2055
965 -0.073009789300238381 1.0518340810999651 1.8590423929023023 65 122 67 0.77521544169440293 62 2632 26 2629 100 2482 92 2524 90 2767 67 2735 47 2506 79 2435 68 2286 63 2453 84 2442 42 2365 35 2262 40 2133 69 2241 57 2168 95 2153 24 2061 53 1971 13 1483
966 -0.073009789300238381 1.0518340810999651 1.8590423929023023 65 122 67 0.77521544169440293 62 2633 26 2630 100 2483 92 2525 90 2768 47 2507 67 2736 79 2436 68 2287 63 2454 84 2443 42 2366 35 2263 40 2134 69 2242 57 2169 95 2154 24 2062 53 1972 13 1484
968 0.064473599959326305 1.1633317194757347 1.8893459753262214 61 122 66 1.0475468103937842 62 2636 26 2635 100 2489 19 2574 17 2563 77 2480 82 2743 92 2529 90 2769 67 2737 47 2503 79 2437 68 2293 63 2457 84 2444 42 2368 35 2267 40 2137 69 2244 57 2172 95 2157 24 2064 80 1715 74 1662
969 0.12853390828716182 1.2465675578176711 1.9749326098853015 128 150 100 1.2394754481404586 62 2575 26 2636 100 2490 82 2686 92 2534 90 2709 67 2666 63 2402 84 2399 42 2337 35 2236 40 2098 57 2106 24 1921
970 0.062351661544511855 1.2610221011545439 2.0373355005423264 62 124 68 1.1578856898752317 62 2637 26 2637 100 2491 92 2537 90 2774 67 2668 79 2443 68 2296 63 2468 84 2448 42 2376 35 2273 40 2143 8 1963 69 2248 57 2177 95 2165 24 2070 48 1502
971 0.061020410685756997 1.26007134989703 2.0334205693831895 62 124 68 0.8907424009793421 62 2638 26 2638 100 2492 92 2538 90 2775 67 2669 84 2449 35 2274 57 2178 69 2249 95 2166 24 2071
972 0.32256221006062852 1.3347021799349446 2.0202960542133224 87 83 81 0.53792457757059309 62 2639 26 2639 100 2493
973 0.2005888753946225 1.3208593013829708 2.033358003358765 96 130 78 0.49758926603487413 62 2641 26 2641 82 2687
974 0.3636577282748536 1.4542848431900761 1.9184127104081596 201 212 119 1.1748163291692617 62 2642 26 2642 100 2495 92 2476
976 -0.86274046856068154 1.4279773036332459 2.0484958074817299 213 215 228 1.7540799728067271 62 2645 26 2645 19 2577 92 2550
